33 35 34 34 34 33 35 34 33 32 33 34 33 34 33 31 33 33 33 35 31 35 33 31 33 31 32 34 33 34 34 33 31 35 35 33 34 34 34 31 33 34 32 35 33 33 34 34 33 34 32 34 31 34 31 33 31 33 34 33 33 31 34 33 33 35 34 34 34 33 35 34 33 32 33 34 33 34 33 31 33 33 33 35 31 35 33 31 33 31 32 34 33 34 34 33 31 35 35 33 
34 33 34 34 31 32 34 32 34 34 35 34 33 35 34 35 34 34 33 31 34 34 34 34 32 34 33 32 32 35 33 35 31 34 33 33 34 34 34 35 33 34 32 35 33 33 35 34 33 32 33 33 34 33 32 33 35 34 35 35 33 33 33 32 34 33 34 34 31 32 34 32 34 34 35 34 33 35 34 35 34 34 33 31 34 34 34 34 32 34 33 32 32 35 33 35 31 34 33 33 
35 32 34 31 34 34 35 32 31 32 35 34 35 34 34 35 35 34 32 34 34 34 33 35 32 35 33 34 33 34 34 33 31 34 33 33 33 34 33 31 35 33 31 34 34 31 35 33 31 35 34 35 33 35 34 35 34 33 31 33 33 34 32 34 35 32 34 31 34 34 35 32 31 32 35 34 35 34 34 35 35 34 32 34 34 34 33 35 32 35 33 34 33 34 34 33 31 34 33 33 
33 35 34 34 31 32 32 35 34 34 33 35 33 33 34 35 32 35 34 32 34 33 33 35 35 34 33 33 33 32 34 34 33 34 34 31 34 35 35 34 35 34 33 34 35 34 33 35 35 33 35 34 31 33 34 34 33 31 31 35 33 33 34 34 33 35 34 34 31 32 32 35 34 34 33 35 33 33 34 35 32 35 34 32 34 33 33 35 35 34 33 33 33 32 34 34 33 34 34 31 
48 62 75 77 69 63 58 48 39 30 24 18 16 12 8 5 3 2 2 2 2 2 2 2 2 1 1 0 0 0 0 0 0 0 0 0 0 0 0 0 0 0 0 0 0 0 0 0 0 0 0 0 0 0 0 0 0 1 1 3 5 9 12 13 12 10 10 10 10 9 8 9 8 6 5 5 5 6 6 6 7 9 11 13 16 19 20 22 23 23 23 22 24 30 35 30 22 15 15 14 
44 56 63 67 67 62 60 50 35 26 20 14 13 11 7 4 3 3 3 3 3 2 2 2 2 1 1 0 0 0 0 0 0 0 0 0 0 0 0 0 0 0 0 0 0 0 0 0 0 0 0 0 0 0 0 0 0 1 1 2 4 8 11 11 11 10 10 10 8 8 8 8 8 7 6 5 6 8 9 10 13 15 17 21 26 29 32 38 41 39 35 29 30 41 45 40 33 25 23 24 
39 45 48 54 60 61 55 45 35 24 17 13 10 8 6 4 3 3 3 3 3 2 2 2 2 1 1 0 0 0 0 0 0 0 0 0 0 0 0 0 0 0 0 0 0 0 0 0 0 0 0 0 0 0 0 0 0 1 1 2 4 6 8 9 9 9 9 8 7 7 7 7 7 7 7 7 7 11 14 16 19 22 26 33 39 44 49 57 60 57 54 47 49 60 61 53 49 40 31 32 
30 30 33 38 43 47 44 37 32 24 16 11 7 6 4 4 3 4 4 4 3 3 2 2 1 1 1 0 0 0 0 0 0 0 0 0 0 0 0 0 0 0 0 0 0 0 0 0 0 0 0 0 0 0 0 0 0 1 1 2 3 5 6 7 8 9 9 7 6 6 5 6 6 7 8 8 10 14 16 20 24 29 35 44 54 64 72 80 83 80 83 83 84 96 100 88 84 72 61 55 
22 27 28 30 35 37 37 34 28 23 16 11 7 5 4 4 4 4 4 3 3 2 2 2 2 1 1 0 0 0 0 0 0 0 0 0 0 0 0 0 0 0 0 0 0 0 0 0 0 0 0 0 0 0 0 0 0 1 1 2 3 4 5 6 8 9 8 7 6 6 6 7 7 8 9 10 12 15 19 24 29 35 42 53 66 82 95 101 100 101 114 123 133 145 148 131 122 117 104 77 
24 29 30 31 34 34 34 33 27 21 14 9 6 5 4 4 3 4 3 3 2 2 1 2 2 1 1 0 0 0 1 1 0 0 0 0 0 0 0 0 0 0 0 0 0 0 0 0 0 0 0 0 0 0 0 0 0 1 1 2 3 4 5 7 8 8 9 9 9 8 9 9 10 10 10 11 14 17 22 25 31 40 48 60 74 90 105 111 113 121 140 157 173 181 181 160 145 147 136 99 
28 33 34 31 34 35 39 36 29 22 15 9 6 4 4 3 3 3 3 2 2 2 1 1 1 1 1 0 1 1 1 1 1 1 1 0 0 0 0 0 0 0 0 0 0 0 0 0 0 0 0 0 0 0 0 0 0 1 1 2 3 5 6 7 9 10 10 11 12 12 12 12 12 13 13 14 16 19 24 28 33 42 53 66 82 98 113 123 132 144 163 184 197 199 203 189 163 155 145 123 
30 36 38 36 36 39 39 34 30 23 16 10 6 4 3 3 3 3 2 2 2 1 1 1 1 1 0 0 1 1 1 1 1 1 1 1 0 0 0 0 0 0 0 0 0 0 0 0 0 0 0 0 0 0 0 0 0 1 2 2 4 5 7 8 9 11 13 14 15 15 15 15 15 16 16 17 18 21 25 30 36 46 58 72 90 105 116 125 141 160 177 198 212 220 220 206 176 163 158 151 
29 36 40 39 38 39 36 28 24 19 15 10 6 4 3 3 2 2 2 2 2 1 1 1 0 0 0 0 0 1 1 1 1 1 1 1 0 0 0 0 1 1 1 0 0 0 0 0 0 0 0 0 0 0 0 0 1 1 2 3 4 6 8 10 11 13 15 16 17 17 17 17 18 18 19 19 21 23 26 31 39 48 61 77 93 108 117 126 141 165 187 202 212 222 219 203 173 153 154 152 
34 38 40 42 43 43 36 25 20 16 14 10 7 5 4 3 3 2 1 1 1 1 1 1 0 0 0 0 0 0 0 0 0 0 1 1 1 1 1 1 1 1 1 1 1 0 0 0 0 0 0 0 0 0 0 1 1 2 2 3 5 7 9 11 13 15 17 17 19 20 20 21 21 21 21 22 23 26 29 34 41 50 61 75 91 105 116 127 144 164 185 197 204 212 204 186 168 148 143 141 
33 33 34 39 44 41 34 26 19 16 14 10 7 5 4 3 2 2 1 1 1 1 0 0 0 0 0 0 0 0 0 0 0 1 1 1 2 2 2 2 2 2 2 1 1 1 1 0 0 0 0 0 0 0 1 1 2 2 3 4 6 8 10 13 15 17 17 19 20 22 23 25 25 24 23 24 25 28 33 38 44 52 62 72 86 100 111 125 143 161 181 193 200 203 196 179 166 143 134 135 
25 27 30 35 39 37 33 27 20 19 16 11 7 6 5 3 2 2 1 1 0 0 0 0 0 0 0 0 0 0 0 0 0 1 1 1 3 4 4 4 3 4 3 2 2 2 1 1 0 0 0 0 1 1 2 2 3 4 5 6 8 10 12 15 17 18 18 20 23 25 26 27 27 27 26 26 28 31 36 41 48 56 63 72 81 95 107 122 141 158 176 192 202 201 197 180 161 141 136 133 
20 23 28 33 34 31 29 28 24 22 18 13 8 6 4 3 2 1 1 0 0 0 0 0 0 0 0 0 0 0 0 0 0 0 0 1 2 4 5 5 5 5 4 3 2 2 2 1 1 1 1 1 2 2 3 4 4 5 6 8 9 12 14 17 18 19 20 21 25 29 29 29 28 28 28 29 31 35 40 46 52 59 66 72 77 91 108 124 143 162 178 191 201 197 192 170 146 134 127 119 
15 19 24 28 26 26 27 28 27 26 20 13 8 5 3 2 2 1 0 0 0 0 0 0 0 0 0 0 0 0 0 0 0 0 0 0 1 3 5 5 5 6 5 3 4 4 3 3 2 2 2 3 3 4 5 6 7 8 9 10 12 14 17 19 20 21 22 24 28 32 33 30 30 31 31 31 34 38 45 51 57 65 70 72 76 87 106 126 150 171 184 193 202 197 186 165 138 120 106 96 
10 13 19 24 22 22 26 27 27 23 16 11 7 4 2 1 1 1 0 0 0 0 0 0 0 0 0 0 0 0 0 0 0 0 0 0 0 3 5 5 5 6 5 5 6 6 6 5 4 4 4 4 6 7 9 9 10 11 12 13 14 17 20 22 22 23 25 27 31 33 34 33 33 34 35 34 37 43 49 56 63 70 75 75 77 85 103 127 151 170 182 188 196 198 188 167 142 119 94 81 
6 10 14 16 16 19 21 24 26 19 12 9 5 3 1 1 0 0 0 0 0 0 0 0 0 0 0 0 0 0 0 0 0 0 0 0 0 2 4 4 5 6 5 7 10 9 9 8 7 8 8 8 9 12 14 15 15 15 16 17 18 21 24 25 25 26 28 32 34 34 35 36 37 39 39 38 41 46 53 62 69 76 80 80 80 84 96 115 133 154 169 179 190 200 193 174 154 128 99 76 
3 5 7 10 10 11 13 17 21 17 11 7 4 2 1 1 0 0 0 0 0 0 0 0 0 0 0 0 0 0 0 0 0 0 0 0 0 2 3 3 5 6 7 10 12 12 12 13 14 14 14 15 17 19 21 22 22 22 22 22 23 26 28 29 29 31 34 36 39 37 38 39 41 42 41 41 42 47 55 67 76 83 86 87 85 87 93 103 120 142 162 177 190 201 199 188 173 144 105 70 
1 3 4 6 7 7 11 13 17 17 13 7 3 2 1 1 0 0 0 0 0 0 0 0 0 0 0 0 0 0 0 0 0 0 0 0 0 1 2 3 4 6 9 12 14 14 15 16 20 23 23 25 28 30 31 31 30 29 29 28 29 31 33 35 35 35 39 41 41 38 39 46 48 46 44 43 45 50 62 75 85 91 94 95 93 94 98 104 116 134 155 175 191 197 194 193 187 164 118 79 
1 2 3 3 5 7 11 15 18 17 13 8 4 2 2 1 0 0 0 0 0 0 0 0 0 0 0 0 0 0 0 0 0 0 0 0 0 0 1 2 3 4 7 11 13 15 18 21 27 30 33 35 38 40 41 41 40 38 37 37 37 38 41 44 44 43 43 44 43 41 43 51 56 56 53 52 53 58 71 87 96 101 104 103 105 107 108 108 114 124 142 168 189 192 187 189 183 169 135 96 
1 2 3 4 7 10 15 17 17 17 15 10 6 4 3 2 1 0 0 0 0 0 0 0 0 0 0 0 0 0 0 0 0 0 0 0 0 0 0 1 3 4 8 14 17 18 21 26 33 40 44 47 49 52 53 52 50 48 47 45 45 46 50 54 53 52 50 49 47 48 50 55 60 64 62 61 64 71 83 98 107 112 113 113 116 123 125 120 117 123 134 157 174 179 176 173 163 159 139 103 
1 2 3 6 9 15 20 22 21 20 18 15 10 6 4 2 1 1 0 0 0 0 0 0 0 0 0 0 0 0 0 0 0 0 0 0 0 0 0 1 3 5 9 16 22 24 28 34 42 50 56 59 63 66 67 65 62 60 57 56 55 56 58 61 61 59 56 54 55 58 57 55 59 67 70 69 77 90 97 107 117 121 122 123 125 130 137 137 136 135 135 148 156 161 161 164 160 152 145 118 
1 2 4 6 11 19 23 26 25 22 20 19 15 10 7 4 3 2 1 0 0 0 0 0 0 0 0 0 0 0 0 0 0 0 0 0 0 0 0 1 3 4 9 15 23 30 36 42 52 60 67 72 76 79 80 79 76 73 69 66 64 64 66 69 69 64 58 58 60 61 60 58 62 70 77 83 95 108 114 120 125 129 131 132 134 137 146 154 156 151 140 137 137 146 160 163 168 167 158 135 
0 1 3 6 12 17 23 26 25 26 27 25 21 15 10 6 5 3 1 0 0 0 0 0 0 0 0 0 0 0 0 0 0 0 0 0 0 0 0 1 3 5 9 16 24 34 42 51 63 73 80 86 90 93 94 93 89 86 82 77 74 74 75 77 78 73 69 68 67 65 62 60 65 77 88 96 106 116 123 128 134 139 141 142 143 146 155 166 170 164 156 143 142 147 163 173 179 183 172 150 
0 2 3 6 11 20 28 27 25 29 31 30 27 22 14 9 7 4 1 1 0 0 0 0 0 0 0 0 0 0 0 0 0 0 0 0 0 0 0 1 3 6 11 18 28 38 48 60 73 83 92 99 103 106 107 106 102 97 93 88 84 82 82 85 86 85 82 80 77 73 69 67 73 84 96 105 114 122 131 136 144 149 150 150 154 159 166 175 177 177 175 160 151 151 164 173 176 184 176 154 
0 1 3 5 10 19 29 31 29 31 33 34 31 26 18 13 9 5 2 1 1 1 1 1 0 0 0 0 0 0 0 0 0 0 0 0 0 0 1 2 3 7 13 22 32 43 56 69 83 94 104 110 115 118 119 118 115 109 103 99 95 91 90 91 93 93 91 89 87 85 83 82 85 92 101 111 123 133 142 149 154 158 159 159 164 171 175 180 185 185 183 173 160 159 166 166 161 169 175 165 
0 1 2 4 7 13 23 29 30 33 35 37 36 30 20 13 9 5 2 1 1 1 1 1 1 1 0 0 0 0 0 0 0 0 0 0 0 1 1 2 4 9 17 25 37 50 64 79 92 105 116 123 128 131 131 130 126 120 114 109 103 98 96 95 97 97 96 95 95 95 94 96 99 102 110 120 133 144 154 161 165 166 166 167 173 179 182 186 190 191 188 179 169 165 165 169 160 159 165 164 
0 0 1 2 4 7 14 22 26 31 35 38 38 31 21 15 10 5 3 2 2 2 2 1 1 1 1 0 0 0 0 0 0 0 0 1 1 1 2 4 6 12 21 30 43 57 73 88 102 115 126 134 141 144 144 142 138 132 125 118 112 106 102 101 100 100 101 102 104 104 104 107 112 115 120 129 141 152 162 169 173 173 172 174 179 185 189 190 191 189 187 178 166 159 164 169 158 154 155 153 
0 0 0 1 2 4 8 15 20 24 30 35 35 29 23 17 11 6 4 3 3 3 2 2 2 2 1 1 1 0 0 0 0 0 0 1 1 2 3 6 10 16 25 35 50 65 80 96 111 124 135 146 154 158 158 155 152 145 136 127 120 113 108 106 104 104 104 106 109 112 113 117 122 125 128 136 145 156 165 173 177 178 177 178 181 186 189 191 191 186 183 176 165 166 169 168 159 154 145 138 
0 0 0 0 1 3 6 12 16 19 24 29 31 29 24 18 12 8 6 5 4 4 3 3 3 2 2 1 1 1 1 0 0 1 1 2 2 3 5 8 14 21 30 43 57 72 90 106 120 133 146 158 167 173 174 171 166 159 147 137 128 120 115 111 108 108 109 111 114 116 120 123 127 130 134 141 150 161 170 177 181 181 181 181 184 188 191 194 193 188 182 176 171 176 178 181 173 158 135 122 
0 0 0 0 1 2 5 10 14 18 23 26 29 29 25 19 13 11 9 7 6 5 5 4 4 4 3 2 2 2 1 1 1 2 2 3 4 5 8 12 18 27 37 50 65 82 99 116 130 143 156 169 178 184 186 185 179 170 157 145 136 127 122 117 113 112 113 116 118 120 123 127 132 135 139 145 154 166 176 182 186 185 186 186 188 191 194 195 195 192 187 181 176 177 182 187 181 162 134 115 
0 0 0 0 1 3 5 8 13 18 22 26 29 28 25 21 17 14 12 10 9 8 8 7 6 6 5 4 4 3 3 3 3 3 4 5 6 8 11 17 24 34 46 60 75 92 110 126 140 153 165 175 184 190 193 194 188 177 164 150 141 133 127 121 116 114 114 118 120 122 125 130 134 137 141 148 158 170 180 187 192 192 192 193 194 196 197 197 196 195 191 186 182 180 180 181 177 160 132 109 
0 0 0 0 1 2 5 8 12 17 23 27 31 31 27 23 20 17 16 14 13 13 12 12 10 9 8 7 6 5 5 5 5 6 7 8 10 13 17 23 32 43 56 71 88 105 121 136 150 163 174 182 188 193 197 200 195 187 172 157 146 138 130 123 117 114 115 118 121 124 128 132 134 136 142 151 161 171 181 191 196 198 198 198 198 199 199 198 197 196 192 189 184 180 175 169 161 145 125 106 
0 0 0 1 1 2 5 9 12 17 24 29 30 31 30 26 25 23 22 21 19 19 18 16 14 13 12 11 10 9 9 8 9 9 11 13 16 19 24 31 41 53 67 83 99 117 132 147 159 171 180 186 189 193 196 197 197 191 180 166 153 141 131 122 117 114 114 116 121 124 128 131 132 136 144 154 165 173 185 194 199 201 200 200 200 200 199 198 197 195 192 191 184 176 171 160 147 129 115 97 
0 0 0 1 2 3 5 8 11 16 23 28 29 30 32 30 30 29 28 27 26 25 23 21 20 19 19 18 17 15 14 14 14 15 17 19 23 28 34 42 52 65 79 95 111 128 143 157 169 179 186 190 192 193 193 191 191 190 182 170 156 142 130 121 116 113 113 113 117 121 124 126 128 135 145 157 169 178 188 196 201 203 202 201 200 200 199 196 194 191 188 187 182 174 165 151 132 111 99 83 
0 0 1 2 3 5 7 9 11 16 20 25 28 31 34 35 34 35 34 32 30 30 29 27 27 27 27 26 24 22 21 21 21 24 25 28 32 37 43 53 65 78 94 110 125 139 152 166 177 186 192 196 196 195 192 188 187 186 181 172 159 142 129 120 114 111 110 110 112 118 123 124 125 132 144 157 169 180 189 196 201 204 203 201 198 197 195 193 190 187 182 177 172 166 157 140 120 101 87 72 
0 0 0 2 4 7 9 12 14 15 18 22 25 28 32 34 35 37 37 36 36 38 38 37 37 37 37 36 34 31 31 30 31 34 36 39 43 48 55 65 76 91 108 125 138 150 161 174 184 192 198 200 198 194 190 185 184 185 179 172 160 140 126 117 111 108 107 107 111 116 119 119 121 128 140 154 167 179 188 195 200 203 202 198 195 192 190 186 182 176 172 165 159 153 144 127 109 94 81 68 
0 0 0 1 3 7 10 13 14 14 15 20 22 24 28 31 34 37 37 38 44 47 50 50 48 46 47 48 46 44 42 41 42 46 49 51 54 59 67 76 88 102 120 138 153 163 170 181 190 197 202 204 201 196 191 183 179 178 174 167 155 137 123 114 108 105 103 104 107 112 115 115 118 124 135 149 163 175 185 192 197 199 197 194 190 186 182 177 171 164 159 151 145 139 129 111 97 89 79 67 
0 0 0 1 3 6 9 14 14 14 14 18 20 21 23 27 32 37 39 45 53 57 61 61 57 56 56 57 57 56 54 53 54 58 60 62 65 71 78 88 100 114 130 147 161 169 175 184 194 201 206 206 201 196 190 182 175 172 171 164 149 135 121 111 104 100 98 99 101 105 109 111 114 119 127 143 158 170 179 187 191 193 190 187 184 179 173 167 160 154 147 140 133 127 117 102 89 80 76 69 
0 0 0 0 2 4 7 12 14 13 12 14 16 17 19 23 30 37 43 53 63 72 74 72 67 66 65 66 66 67 66 65 65 68 70 73 77 83 90 99 111 124 138 155 167 174 180 187 197 204 207 206 202 197 192 185 177 170 167 159 146 132 118 107 100 95 93 92 93 97 102 105 108 112 122 136 151 164 173 179 184 184 182 178 175 169 162 155 148 142 134 129 123 115 105 93 81 73 67 64 
0 0 0 0 1 2 4 7 10 10 9 9 10 12 15 20 28 35 44 56 68 82 86 81 78 75 75 74 75 76 76 75 75 78 80 84 88 94 101 109 121 134 148 161 171 178 185 191 200 206 209 207 203 198 193 184 175 167 162 151 140 127 114 103 95 91 88 86 86 89 93 98 102 108 117 129 143 154 163 170 173 174 171 167 163 156 149 141 133 126 120 115 111 103 93 82 73 66 57 54 
0 0 0 0 0 1 2 4 6 6 6 6 7 10 14 21 29 36 45 54 67 84 90 87 86 86 83 83 83 85 85 86 86 88 91 93 98 104 111 120 129 142 155 165 173 180 188 195 203 208 210 209 205 199 190 179 167 159 154 143 133 122 110 100 92 87 84 81 81 82 85 91 96 103 112 123 134 144 152 158 162 162 159 155 149 142 135 127 119 111 104 101 97 90 82 74 64 58 53 49 
0 0 0 0 0 0 1 3 3 4 3 3 4 8 14 23 33 40 46 55 65 78 87 91 93 93 91 91 91 92 93 94 94 96 97 101 106 112 119 128 137 147 159 168 175 182 190 198 205 209 210 209 205 196 185 174 162 152 146 138 130 118 108 97 89 85 80 77 76 76 78 82 88 95 104 114 124 134 141 146 149 149 146 140 133 126 120 113 105 97 90 85 81 78 71 65 56 51 46 44 
0 0 0 0 0 0 1 1 2 1 1 2 3 6 15 24 34 43 50 56 64 72 81 91 95 96 96 96 97 98 100 101 101 101 104 107 112 118 126 133 141 150 160 169 177 184 193 200 206 209 209 207 202 193 180 169 158 147 143 139 128 113 104 92 85 79 74 72 71 70 71 74 79 86 93 103 113 122 128 134 137 136 131 124 118 111 105 96 89 82 76 71 67 64 58 51 46 42 38 40 
0 0 0 0 0 0 0 1 1 1 1 2 3 6 14 25 35 48 55 59 68 75 81 88 95 99 100 100 101 103 105 106 106 107 109 113 117 122 130 136 144 152 160 169 178 187 195 201 205 208 208 204 197 188 174 161 147 141 141 136 125 108 94 83 77 71 67 66 65 64 64 67 71 77 84 92 102 110 116 121 125 123 117 109 102 95 88 80 74 70 64 59 54 51 46 39 35 32 31 36 
0 0 0 0 0 0 0 0 0 0 1 2 3 6 12 22 38 52 59 66 73 76 82 88 97 100 99 100 103 106 108 110 111 112 113 117 120 125 132 137 143 152 160 167 177 186 194 200 204 206 204 198 190 179 166 154 139 133 133 125 114 99 83 75 73 67 65 63 60 59 58 60 64 68 74 82 91 99 104 110 112 109 102 92 84 77 70 64 60 57 53 49 47 44 40 33 29 27 28 35 
0 0 0 0 0 0 0 0 0 0 1 1 2 5 9 19 35 52 64 73 77 80 86 89 100 102 99 99 103 106 109 112 113 113 115 118 121 127 132 137 141 148 157 165 175 184 191 197 202 203 201 194 184 173 162 147 135 129 124 112 103 90 78 74 71 66 65 65 59 56 54 54 57 61 66 74 82 88 93 97 97 93 85 76 68 62 57 51 48 45 44 44 42 39 38 34 29 28 32 38 
0 0 0 0 0 0 0 0 0 0 0 1 2 5 9 17 31 47 64 74 81 84 86 90 97 100 99 98 99 102 107 111 113 113 115 117 119 124 129 134 135 140 150 160 171 180 188 194 199 200 196 191 183 172 158 142 131 128 123 113 103 90 81 75 71 67 67 66 61 55 51 50 52 56 60 66 73 78 83 85 84 79 70 61 56 52 48 43 39 38 39 40 41 40 39 34 32 32 37 42 
0 0 0 0 0 0 0 0 0 0 0 2 4 7 14 22 30 42 58 74 81 82 82 85 84 87 92 95 95 98 104 108 110 111 112 113 115 118 123 129 132 135 144 155 166 175 183 190 193 192 191 189 184 170 153 139 133 128 120 115 110 99 91 82 76 73 69 66 61 52 49 48 48 51 55 60 65 70 73 75 73 67 59 53 50 47 42 38 36 33 35 39 41 42 43 36 33 34 43 49 
0 0 0 0 0 0 0 0 0 0 1 3 5 10 17 27 36 46 56 66 68 71 73 76 75 80 88 92 92 94 100 104 106 107 108 109 109 111 115 119 123 128 137 148 159 167 176 183 184 181 182 183 178 165 151 140 136 130 121 118 114 106 97 86 78 74 69 63 59 52 49 47 47 49 52 55 60 64 66 69 68 62 55 51 48 45 42 37 35 34 35 40 42 43 45 42 38 39 48 54 
0 0 0 0 0 0 0 0 0 1 3 5 8 12 17 28 39 47 53 53 53 58 63 63 65 73 79 84 86 89 94 99 102 103 104 104 104 106 107 111 115 121 130 140 150 159 168 174 175 173 176 179 176 168 160 149 142 134 131 130 124 120 112 98 83 75 67 61 56 52 51 48 46 47 50 53 57 61 63 66 67 61 55 51 47 44 44 41 38 36 40 48 51 46 45 44 43 47 54 59 
0 0 0 0 0 0 0 0 1 3 5 6 8 12 16 22 34 44 47 45 44 48 53 56 60 63 66 72 78 84 89 94 97 100 100 101 102 102 103 103 107 113 122 132 141 149 154 159 162 161 163 166 167 165 163 151 141 136 140 140 138 138 129 111 94 83 68 60 53 49 48 44 43 46 49 52 56 61 64 68 68 62 54 49 46 44 46 46 42 42 46 54 57 49 43 43 47 54 60 63 
0 0 0 0 0 0 0 1 2 3 4 6 8 12 16 19 31 47 48 41 37 33 39 49 53 54 58 63 71 79 85 91 94 97 98 100 102 102 101 99 101 107 116 124 131 137 139 141 144 146 148 148 151 154 153 147 143 145 152 151 150 148 139 121 103 86 67 53 51 49 47 44 43 45 48 53 58 61 65 70 69 63 56 50 47 47 49 50 49 49 53 59 59 54 44 44 51 59 63 63 
0 0 0 0 0 0 0 2 3 3 4 6 9 11 13 19 30 44 44 37 32 26 29 39 45 50 54 62 69 77 84 91 94 95 97 99 101 103 101 98 98 102 108 113 118 122 124 125 130 136 137 134 136 142 144 143 150 160 166 163 158 150 142 130 111 88 67 53 53 56 55 49 44 43 47 54 58 60 67 73 72 69 64 57 53 52 53 53 54 56 56 59 58 55 47 49 61 69 68 69 
0 0 0 0 0 0 0 2 3 3 4 6 9 11 12 17 27 34 31 27 24 23 25 34 42 47 53 62 70 78 84 90 94 93 94 97 99 103 101 98 96 98 102 105 107 109 113 116 125 131 131 125 127 137 143 146 161 175 179 177 172 164 151 130 111 92 70 57 59 64 62 52 48 47 50 53 58 64 74 80 79 79 73 65 62 60 59 57 57 58 53 50 53 55 53 57 68 76 75 75 
1 1 1 1 0 0 0 2 4 4 4 4 6 8 10 15 21 24 26 25 21 24 31 36 43 49 59 65 72 77 82 90 94 92 90 92 95 101 101 97 95 94 93 95 96 98 106 114 122 124 121 120 122 131 139 145 161 176 187 191 186 177 160 135 107 88 70 66 69 72 68 57 55 56 55 58 63 72 81 84 87 85 82 74 70 68 66 63 61 58 54 49 53 60 62 65 70 77 80 82 
1 1 1 1 0 0 1 2 4 4 5 5 4 6 8 10 13 15 19 20 19 24 35 41 47 56 68 73 77 78 80 87 93 93 89 90 92 96 97 95 91 88 85 86 88 90 100 108 112 113 114 119 124 129 134 144 154 168 182 189 185 176 158 135 110 91 79 76 79 80 74 68 65 65 65 66 69 76 85 87 88 87 86 80 76 75 73 68 65 64 63 59 62 69 73 73 74 75 81 86 
0 0 0 0 0 0 1 2 4 5 6 7 5 4 6 8 10 12 14 14 20 29 38 46 56 67 77 82 87 85 82 86 92 94 91 88 90 93 93 92 87 84 83 84 85 87 94 99 99 101 102 109 119 125 131 140 146 157 169 175 171 163 149 135 121 105 93 86 85 84 80 80 77 76 77 77 79 82 89 90 87 87 86 81 81 83 81 73 71 70 72 71 74 76 79 78 76 71 74 82 
0 0 0 0 0 0 0 1 3 5 6 6 5 5 5 7 11 15 14 17 25 32 41 54 68 80 87 94 96 93 91 93 96 94 88 85 88 87 87 90 85 83 84 83 82 84 89 91 89 88 88 95 102 110 121 126 131 142 151 158 157 146 133 130 132 117 99 94 93 87 86 92 93 91 91 88 86 87 91 90 84 84 84 82 85 89 87 82 80 79 79 85 88 81 80 78 74 73 73 76 
0 0 0 0 0 0 0 0 1 3 5 7 7 8 7 7 10 15 18 24 31 40 53 68 85 98 105 110 108 104 104 103 101 95 86 80 78 76 80 83 82 81 81 79 76 75 78 83 81 75 72 77 78 83 92 98 106 122 128 135 138 131 123 125 130 115 98 96 96 92 93 101 106 105 103 96 91 92 94 91 82 80 82 82 88 91 89 86 86 86 88 94 92 84 80 77 75 77 77 72 
0 0 0 0 0 0 0 0 1 3 5 7 9 10 9 8 10 14 23 35 45 55 69 84 100 113 123 127 122 116 114 110 106 97 86 76 68 68 70 73 76 74 74 75 73 69 69 73 70 58 54 57 59 58 60 70 86 102 108 113 120 125 122 118 116 105 90 87 92 98 102 109 112 112 109 100 96 97 95 92 85 79 78 81 86 89 88 86 85 89 93 94 89 85 83 79 76 78 76 69 
0 0 0 0 0 1 1 1 2 3 4 6 7 8 10 11 12 16 29 46 62 74 88 98 114 128 137 139 132 125 123 119 113 102 93 82 70 65 65 66 66 66 66 68 70 69 68 70 64 47 43 46 48 43 41 52 70 87 91 92 102 113 118 116 109 101 85 79 88 100 110 114 113 112 114 110 104 102 96 92 86 76 73 79 84 84 84 86 86 86 88 87 83 81 80 77 71 68 67 61 
0 0 0 0 1 2 3 4 3 4 3 5 6 7 10 13 16 23 39 60 76 90 100 109 125 140 148 148 140 134 132 128 121 110 104 93 79 70 66 62 59 56 59 62 64 66 67 65 54 39 36 36 36 33 34 40 52 66 78 87 94 97 103 104 99 93 85 80 86 101 114 116 115 116 118 118 112 107 101 98 89 76 72 78 80 77 78 82 84 84 85 86 84 78 77 72 65 59 56 53 
0 0 0 1 2 3 5 5 4 4 4 4 5 7 13 17 23 32 52 73 88 100 107 120 137 151 158 157 151 148 146 140 131 122 118 107 90 75 68 61 56 53 57 57 53 56 56 53 46 33 27 22 22 22 26 34 44 56 70 82 86 79 81 85 80 79 83 82 87 100 110 110 114 117 118 120 117 109 106 106 98 83 76 77 78 77 79 83 85 85 87 89 85 76 73 68 61 56 53 48 
0 0 1 2 4 6 6 5 5 6 5 4 5 9 16 23 29 39 61 83 96 105 117 132 149 161 167 169 170 170 168 161 148 139 130 118 101 85 73 61 54 51 52 49 44 43 41 43 41 30 22 15 13 14 21 30 38 45 60 75 78 69 67 69 70 75 80 82 89 106 118 117 117 117 116 119 120 115 115 114 106 91 83 80 80 80 83 89 91 90 88 87 80 71 66 61 56 52 50 48 
0 0 1 4 5 7 7 6 6 6 6 5 6 11 19 28 36 50 73 93 105 116 128 142 158 172 179 185 189 190 188 179 166 157 144 129 114 97 83 69 60 55 51 45 38 34 33 36 33 28 18 10 7 8 14 21 29 34 43 53 57 56 52 54 60 66 74 87 96 108 118 119 116 117 118 119 124 122 119 119 111 101 92 84 80 83 91 97 98 94 91 87 78 69 59 54 51 50 48 45 
0 0 1 3 4 6 7 6 7 8 8 7 8 15 24 37 49 66 88 105 120 131 142 154 169 184 193 200 204 205 204 196 183 171 158 145 129 111 96 79 65 58 54 46 36 33 30 27 22 20 12 6 4 4 8 11 16 21 27 34 38 40 39 42 50 53 60 81 93 101 109 109 103 107 113 118 124 119 114 115 110 106 97 88 79 82 93 101 100 97 91 86 78 67 55 47 46 45 43 41 
0 0 1 1 4 5 6 6 9 11 12 12 15 23 36 53 69 84 103 122 136 144 154 166 180 193 203 212 218 223 222 214 199 184 168 157 142 121 101 83 70 61 54 44 38 36 32 24 16 14 8 4 4 4 5 5 7 11 15 23 29 29 27 30 37 41 50 70 83 92 100 100 93 87 95 110 115 113 111 109 105 106 105 96 88 90 98 105 103 97 90 84 74 61 50 43 41 37 35 36 
0 0 1 1 5 7 7 6 9 13 15 18 24 35 52 71 88 103 121 137 149 156 167 179 190 201 212 221 229 235 233 225 213 200 179 166 154 136 114 96 77 64 48 40 37 32 27 19 14 12 8 6 5 4 4 5 4 5 8 11 16 18 19 25 33 38 43 61 72 81 91 94 90 86 90 103 109 110 109 108 107 109 107 96 91 92 97 100 96 89 84 75 65 55 46 40 37 33 32 34 
0 0 1 2 5 8 8 9 11 16 18 25 36 50 68 88 104 120 136 150 160 169 180 191 202 210 220 227 234 239 238 232 222 210 190 177 165 150 128 106 77 57 43 36 31 25 19 13 12 13 12 11 7 4 5 6 5 4 5 6 9 13 17 24 34 38 42 53 63 67 77 86 90 91 92 99 108 110 107 106 110 107 101 87 82 83 85 87 83 78 72 64 56 49 43 38 35 33 33 32 
0 0 1 3 6 8 12 16 19 23 29 37 50 65 82 102 120 135 150 162 172 183 194 205 214 220 225 231 236 240 239 234 226 213 195 179 166 150 126 103 77 56 42 34 28 23 16 12 10 13 13 14 11 9 9 9 7 6 5 5 7 10 15 22 32 39 46 52 61 66 72 80 85 96 102 107 111 111 102 96 101 99 89 79 74 71 70 70 66 61 57 53 49 45 42 38 36 34 34 32 
0 1 2 4 7 11 18 23 28 34 42 51 64 79 97 117 135 151 164 176 187 197 207 216 224 228 232 236 238 240 239 234 226 212 194 174 157 138 114 90 73 55 42 37 30 27 20 15 12 16 16 18 15 12 12 10 8 7 7 7 8 10 16 22 31 36 45 54 60 62 65 66 74 92 103 108 114 109 95 82 83 83 78 73 67 61 57 55 51 46 44 42 42 41 40 39 38 36 35 35 
2 2 3 5 9 16 23 33 39 47 54 65 79 95 113 135 153 167 179 191 201 210 219 226 233 236 238 240 240 240 240 235 227 212 196 176 152 124 102 83 67 52 44 41 38 34 26 19 15 15 19 21 20 14 11 9 8 9 10 10 9 10 14 22 32 35 42 52 52 51 52 52 63 82 90 97 103 92 76 64 60 63 66 63 55 50 48 44 41 36 35 35 38 38 39 39 38 36 35 35 
5 5 6 10 15 22 31 43 52 59 68 80 96 113 133 155 173 185 196 206 215 223 230 235 239 242 243 243 243 243 242 239 232 219 205 188 157 119 98 85 75 60 50 45 47 40 28 18 15 12 12 16 20 14 8 7 9 11 11 13 13 10 10 15 24 28 31 40 40 38 39 38 46 58 65 74 78 70 56 47 45 48 53 49 42 40 38 34 33 31 30 31 34 36 37 37 36 35 35 35 
8 9 12 19 23 29 39 51 64 74 85 100 116 133 154 174 190 201 210 218 227 233 238 242 244 246 247 247 247 246 245 242 234 225 212 193 165 126 106 95 86 75 66 57 53 44 31 19 13 8 8 10 15 11 6 6 8 10 10 11 12 8 6 9 12 14 17 22 27 28 27 23 27 34 40 45 52 52 41 34 32 35 40 38 34 30 29 28 28 28 29 30 32 34 35 36 36 35 36 36 
13 16 22 27 31 37 49 64 79 89 102 120 137 154 172 189 203 213 222 229 236 241 244 247 248 249 250 249 248 247 246 242 234 223 210 193 168 133 110 97 86 80 71 62 56 46 31 20 13 8 8 8 12 12 7 6 9 11 10 8 7 5 4 4 5 5 8 12 17 19 18 14 14 19 25 30 33 33 29 24 22 25 29 30 30 25 24 25 26 26 27 29 31 32 34 35 36 36 37 37 
18 23 30 33 38 48 64 81 96 107 122 139 157 173 189 204 215 224 232 238 243 246 249 250 251 251 251 250 249 248 244 239 233 222 205 188 161 127 106 94 82 74 64 54 51 42 26 16 10 7 9 10 14 15 10 8 11 13 11 6 4 3 2 1 2 3 6 8 10 12 10 8 8 12 19 22 23 23 22 18 17 22 23 24 26 25 23 23 25 24 24 26 29 32 34 36 37 39 40 41 
28 33 40 42 48 63 81 99 114 127 142 159 176 191 205 217 227 234 240 245 248 250 252 253 253 253 252 251 249 246 242 235 227 221 207 186 156 123 97 85 75 63 53 42 38 34 22 13 7 5 6 9 12 12 10 10 12 13 11 6 2 1 1 1 1 1 3 5 6 6 5 5 5 8 14 15 15 16 16 14 14 18 20 22 26 25 23 23 23 23 22 25 29 32 35 37 40 43 46 48 
40 41 48 53 59 75 95 116 134 147 161 178 193 206 218 227 235 242 247 250 252 253 253 254 254 253 253 251 249 246 241 233 223 215 203 184 162 124 99 86 79 64 47 40 34 26 20 11 6 5 5 9 10 10 9 10 9 9 7 4 2 1 0 0 0 1 2 4 3 3 2 2 3 5 9 11 12 13 11 11 12 17 20 24 24 22 19 20 21 21 22 25 28 32 36 39 43 47 52 55 
45 48 57 67 72 87 110 133 152 165 178 193 207 219 228 236 241 247 250 253 253 254 254 254 254 254 253 252 250 247 242 234 221 209 200 184 163 130 106 93 85 65 46 38 32 23 17 12 8 7 6 7 9 11 10 10 9 5 3 2 1 0 0 0 0 0 1 2 2 1 1 1 1 2 6 9 11 11 11 11 12 16 20 22 20 18 17 18 20 20 21 24 28 32 37 41 46 52 58 64 
53 58 66 78 90 107 127 148 166 178 191 205 217 227 235 241 246 250 252 253 254 254 254 254 254 254 253 252 250 248 242 232 220 208 198 184 159 132 109 94 84 69 54 42 32 24 18 14 11 12 10 9 11 14 16 14 9 5 3 2 1 1 0 0 0 0 1 1 1 1 0 0 1 2 4 7 7 7 9 12 13 15 16 16 15 14 13 14 16 19 21 24 28 33 37 43 48 56 64 71 
62 72 78 89 102 119 139 160 177 190 201 214 226 235 241 246 249 251 253 254 254 254 254 254 254 254 253 252 250 248 240 230 221 213 204 187 162 140 118 101 86 72 63 54 42 30 19 18 16 18 18 15 18 22 25 21 12 6 4 3 2 1 1 1 0 1 1 1 1 1 0 0 1 2 4 4 4 4 8 12 15 14 15 15 13 12 12 12 15 18 20 23 28 33 38 43 51 59 68 77 
66 79 89 98 108 125 144 166 185 199 210 222 233 241 246 250 252 253 254 254 254 254 254 254 254 254 253 251 248 244 235 226 220 212 201 188 168 151 134 114 96 83 75 63 51 36 23 20 22 24 23 24 28 27 27 24 17 9 5 4 3 2 1 1 1 1 2 1 1 1 0 0 1 2 2 2 2 4 7 12 15 16 17 15 12 11 11 12 16 18 20 23 28 33 39 44 52 61 72 84 
75 83 98 110 119 136 158 178 194 209 221 231 240 246 250 252 253 254 254 254 254 254 254 254 254 253 252 249 246 240 232 222 216 208 192 179 168 159 142 117 97 88 82 73 62 49 37 32 34 35 30 29 32 29 26 24 17 9 6 3 2 2 2 1 1 1 1 1 1 1 1 1 1 2 2 2 3 4 6 11 14 15 14 12 11 12 12 13 16 18 20 23 28 34 40 47 55 65 77 90 
78 90 104 118 131 152 174 187 199 215 228 237 245 249 252 253 253 254 254 254 254 254 254 254 254 253 251 248 243 236 228 217 211 202 187 172 165 158 142 123 102 92 90 84 75 62 54 50 50 49 39 35 31 25 21 18 15 9 7 4 3 2 2 2 1 1 1 1 1 1 1 1 1 1 1 2 3 3 5 8 12 11 9 7 9 10 11 13 16 18 20 23 28 34 41 48 58 69 82 96 
77 94 113 131 145 165 184 197 204 218 231 240 247 250 252 253 253 253 254 254 254 254 254 253 253 252 249 245 239 230 220 208 201 193 183 172 167 159 144 129 113 101 98 96 87 75 73 74 69 62 53 41 32 23 17 14 12 10 9 6 5 4 3 2 2 1 1 1 1 1 1 1 1 1 1 2 2 2 4 7 9 7 6 6 8 10 11 13 17 19 21 24 28 34 42 50 60 73 87 100 
77 100 124 143 158 179 196 207 208 219 231 240 247 250 252 252 252 252 253 253 253 253 252 251 251 249 244 239 232 222 210 197 187 181 176 171 169 162 148 132 122 112 105 103 96 90 93 100 92 74 59 44 35 26 19 15 12 11 11 8 6 5 4 3 2 1 1 1 0 1 0 0 0 1 1 2 2 2 3 6 7 7 5 6 9 10 12 13 16 19 21 24 28 34 43 51 62 75 89 104 
79 104 130 150 168 188 202 209 212 221 229 238 245 249 250 250 250 251 251 251 251 251 250 248 248 245 239 232 224 213 202 190 180 174 170 166 164 159 149 133 126 122 120 121 114 107 108 114 107 86 69 54 41 32 24 17 14 12 12 9 6 5 4 3 2 1 1 0 0 0 0 0 0 1 1 2 2 2 3 5 6 6 5 6 8 11 13 14 15 17 19 22 27 33 42 51 62 75 90 105 
79 107 132 154 173 188 198 204 211 220 229 236 242 246 247 247 248 248 247 247 247 247 246 245 242 240 234 224 214 202 192 185 178 173 167 160 154 149 145 134 128 128 133 133 129 124 127 123 112 98 81 63 50 40 29 20 15 12 12 9 6 4 3 3 2 1 1 1 0 0 0 0 0 1 1 2 2 2 2 4 5 5 6 7 8 10 14 14 14 15 17 20 23 30 39 49 61 74 88 104 
85 111 134 154 174 187 197 202 211 220 230 236 240 243 244 243 244 244 242 242 243 243 242 239 234 232 228 220 208 194 182 177 172 165 162 157 149 141 133 132 135 136 137 133 132 138 141 136 118 107 91 75 62 48 33 21 16 12 10 7 5 3 3 2 2 1 1 0 0 0 0 0 1 1 1 1 1 2 2 3 3 4 5 7 7 8 11 12 11 12 14 16 19 25 34 44 57 71 85 101 
91 113 137 157 178 193 200 204 215 226 233 235 239 240 240 239 239 239 238 238 241 242 239 233 228 224 222 213 201 185 174 172 170 163 159 153 141 136 129 130 138 147 147 140 142 150 145 137 128 123 108 89 69 55 36 24 19 15 10 6 4 2 2 2 1 1 1 0 0 0 0 0 1 1 1 0 0 1 1 1 2 3 4 5 5 6 7 7 8 10 12 13 17 22 29 40 52 66 81 97 
99 119 141 163 184 199 204 208 217 229 237 238 240 240 238 236 236 236 236 237 238 240 236 231 224 217 213 204 189 174 164 168 170 163 159 147 133 131 130 133 143 156 162 158 158 159 149 138 131 131 119 99 72 55 38 26 21 16 9 5 3 2 1 2 1 1 0 0 0 0 0 0 1 1 0 0 0 0 0 0 1 2 2 3 4 4 5 5 6 7 9 10 13 18 25 35 49 62 76 92 
108 130 152 168 184 197 204 212 219 229 235 237 240 241 238 235 232 232 233 235 236 238 235 229 220 211 201 190 177 166 159 164 167 161 153 140 132 135 143 152 158 163 171 171 171 174 166 148 132 125 118 107 82 61 42 29 21 13 7 4 2 2 1 1 1 0 0 0 0 0 0 0 0 0 0 0 0 0 0 0 0 1 2 2 3 4 4 3 4 5 6 7 9 15 23 32 44 57 70 87 
118 136 157 171 178 186 199 210 216 224 229 232 237 238 236 233 231 228 230 232 233 234 230 223 218 210 198 185 173 161 153 158 163 159 148 137 135 137 150 167 177 179 185 186 188 183 173 161 144 126 121 120 101 74 50 31 20 11 5 3 2 1 1 1 1 0 0 0 0 0 0 0 0 0 0 0 0 0 0 0 0 1 1 2 2 3 2 2 3 5 5 6 9 13 21 30 40 52 65 81 
128 141 158 171 176 182 193 204 211 219 224 228 231 231 231 229 227 226 226 229 229 227 224 219 215 206 193 182 170 157 149 153 160 161 150 142 139 140 155 173 186 188 186 194 196 180 166 157 142 129 124 118 113 87 55 34 21 12 6 3 1 1 0 0 0 0 0 0 0 0 0 0 0 0 0 0 0 0 0 0 0 1 1 1 2 2 2 3 5 6 6 6 8 13 21 29 40 49 61 76 
134 145 158 167 174 181 187 197 206 212 216 222 226 225 221 219 220 220 220 220 222 222 220 216 211 200 187 176 163 151 144 148 156 162 161 154 152 157 166 174 181 178 173 182 189 176 157 143 141 137 127 114 110 90 62 42 27 17 9 3 2 1 0 0 0 0 0 0 0 0 0 0 0 0 0 0 0 0 0 0 0 1 2 1 1 2 2 3 5 7 7 6 7 11 19 28 38 47 60 75 
136 144 154 164 173 182 187 194 204 209 212 216 220 218 213 210 210 209 210 211 213 213 214 209 203 194 183 169 154 143 141 143 151 161 169 172 173 176 185 187 188 177 167 170 175 167 147 134 135 138 131 120 108 85 62 47 37 23 12 5 3 1 1 0 0 0 0 0 0 0 0 0 0 0 0 0 0 0 0 0 0 1 1 1 1 2 3 5 8 9 7 6 7 11 17 23 31 45 59 76 
136 143 153 163 170 176 183 190 198 202 207 212 214 210 205 204 203 202 200 203 206 209 212 208 200 193 183 166 153 141 137 141 151 165 173 181 188 190 192 194 191 177 160 155 156 154 141 130 131 130 131 126 111 88 63 56 49 32 17 10 5 2 1 0 0 0 0 0 0 0 0 0 0 0 0 0 0 0 0 0 0 0 1 1 2 3 4 7 10 10 7 7 9 13 15 19 27 42 56 74 
138 145 152 160 165 170 176 182 187 190 196 204 206 204 201 199 197 194 192 197 206 211 215 210 199 189 175 160 151 140 137 146 161 172 174 181 185 188 189 186 179 163 148 145 145 149 150 152 148 143 145 141 126 99 73 62 54 39 24 15 8 3 1 0 0 0 0 0 0 0 0 0 0 0 0 0 0 0 0 0 0 0 1 1 2 3 4 6 7 7 7 8 9 11 13 17 23 36 52 67 
136 145 149 154 158 162 167 171 173 178 187 195 198 196 192 189 185 183 184 193 204 208 210 205 198 184 164 151 145 143 143 153 165 173 177 178 176 178 178 168 161 149 140 145 150 156 165 170 172 172 175 162 140 108 82 66 56 42 28 19 10 4 2 1 0 0 0 0 0 0 0 0 0 0 0 0 0 0 0 0 0 0 1 1 2 2 3 3 4 5 6 8 9 9 12 16 23 33 45 59 
129 140 144 148 151 154 155 154 159 168 176 184 185 183 180 176 171 170 174 185 194 196 195 190 189 176 155 143 141 147 149 153 161 170 178 175 171 164 161 157 149 138 132 139 148 158 168 180 190 193 192 175 148 117 96 74 59 45 31 21 11 5 2 1 0 0 0 0 0 0 0 0 0 0 0 0 0 0 0 0 0 0 1 1 1 1 2 2 3 3 5 7 8 8 11 15 21 28 39 53 
120 135 140 142 143 143 141 137 144 155 164 170 169 166 165 162 158 156 162 172 181 182 177 173 171 161 146 141 149 156 153 154 158 169 175 168 158 151 148 144 138 131 128 132 145 168 182 196 204 205 192 175 152 130 110 86 65 48 34 23 15 8 4 3 2 2 2 1 1 0 0 0 0 0 0 0 0 0 0 0 0 1 1 1 1 1 1 1 1 2 4 6 7 8 10 12 17 23 32 46 
112 126 132 133 130 129 126 127 132 143 153 158 156 150 147 146 145 145 150 157 168 171 167 162 155 148 144 144 154 161 157 158 167 175 176 170 153 142 138 134 136 135 138 141 152 177 197 209 216 215 195 178 158 144 126 100 74 55 41 30 21 13 7 5 4 4 4 3 1 0 0 0 0 0 0 0 0 0 0 0 0 0 0 1 1 1 0 1 1 2 3 5 6 8 10 11 14 20 29 44 
102 112 119 122 116 117 117 121 126 136 143 142 140 135 133 133 134 134 139 143 155 163 165 161 152 148 149 148 156 165 166 169 175 174 174 169 155 140 135 133 143 149 152 157 167 187 206 211 214 209 191 179 164 156 142 113 87 70 57 43 30 21 13 8 5 5 5 5 2 0 0 0 0 0 0 0 0 0 0 0 0 0 0 1 1 1 1 1 2 2 3 5 6 8 12 13 15 20 29 43 
90 98 106 110 106 104 105 111 120 127 125 122 121 119 120 120 122 123 130 135 146 156 161 158 155 151 150 149 154 164 171 174 172 170 168 160 150 135 129 133 145 151 154 165 179 193 207 211 210 202 192 184 174 167 155 133 107 88 75 61 45 32 23 15 9 6 6 6 2 1 0 0 0 0 0 0 0 0 0 0 0 0 0 1 1 1 1 1 2 3 3 4 6 9 12 15 17 20 29 42 
80 87 93 94 91 91 94 99 108 113 109 105 101 102 108 111 111 111 119 128 137 147 151 150 153 152 150 151 151 160 170 170 164 164 161 154 148 135 123 127 137 140 146 164 186 197 208 210 212 208 203 194 187 179 167 150 127 106 94 82 65 47 37 26 16 10 7 5 2 1 0 0 0 0 0 0 0 0 0 0 0 0 0 0 1 1 1 1 2 3 3 4 5 8 10 14 19 23 30 42 
73 76 81 80 76 79 83 88 93 97 95 88 84 85 93 99 101 100 108 117 124 132 139 143 146 143 143 147 148 152 160 161 154 152 150 146 139 132 126 128 128 128 145 168 191 201 208 207 212 211 211 204 199 192 179 160 142 128 116 102 85 66 51 38 23 14 10 6 3 1 0 0 0 0 0 0 0 0 0 0 0 0 0 0 0 1 1 1 2 3 3 3 4 6 8 12 18 23 31 40 
64 64 66 64 63 65 71 79 79 80 77 71 68 69 77 84 89 93 98 105 111 119 126 130 131 129 129 136 137 136 143 144 139 134 131 132 131 123 124 125 123 133 148 165 184 194 196 199 207 212 219 214 204 195 183 168 157 148 132 115 98 81 66 53 33 21 15 10 4 2 1 0 0 0 0 0 0 0 0 0 0 1 1 1 0 0 1 1 2 3 3 2 3 5 6 10 15 21 28 35 
54 53 53 50 51 50 56 65 67 62 57 52 52 54 62 69 75 83 89 93 99 104 108 108 110 111 114 119 115 114 121 121 114 111 111 114 115 116 115 114 120 129 139 155 174 181 183 194 209 216 220 216 205 199 188 175 164 155 138 126 111 96 84 68 48 33 21 16 9 4 2 1 0 0 0 0 0 0 0 0 0 1 1 1 1 1 1 1 2 2 2 2 2 3 6 9 13 18 24 31 
45 42 40 40 42 40 43 48 52 48 44 40 39 41 46 54 62 74 82 84 85 84 86 85 85 89 94 94 91 89 93 95 94 95 91 94 97 107 114 108 111 122 132 151 169 176 184 201 216 225 226 220 210 202 190 180 169 159 143 134 126 113 103 89 68 46 33 26 16 9 4 2 1 0 1 0 0 0 0 0 1 1 1 1 1 2 2 2 2 2 2 2 2 3 5 7 10 15 20 27 
38 34 30 31 32 32 34 34 36 35 32 30 29 31 33 41 51 59 66 70 68 65 65 66 65 68 70 66 64 61 64 74 76 73 71 74 83 99 102 89 92 110 120 134 149 166 192 210 222 231 229 223 216 207 199 186 173 160 151 146 140 130 123 110 92 71 51 38 24 14 9 5 3 2 1 1 1 1 1 1 1 1 1 1 1 2 2 2 2 2 2 2 2 3 4 5 8 11 16 22 
32 28 24 24 25 26 26 26 27 25 22 20 20 21 23 29 38 43 49 50 47 44 45 48 48 54 53 46 44 42 41 46 50 47 49 57 67 76 69 63 72 86 87 96 116 149 189 213 220 227 222 219 214 209 206 191 174 167 167 162 153 144 140 133 119 98 75 54 36 23 15 9 5 4 3 2 3 3 2 2 2 2 1 1 2 2 2 2 2 1 2 2 2 2 3 4 6 8 12 17 
26 24 22 21 22 22 21 20 20 19 16 16 15 15 17 19 26 30 34 37 37 34 34 35 36 41 42 36 32 28 25 27 28 29 33 40 44 47 41 44 48 61 66 74 93 137 181 206 217 225 222 223 219 219 213 197 188 185 185 183 173 161 155 151 145 119 94 76 56 41 29 17 9 6 5 5 5 4 2 3 3 3 2 1 2 2 2 2 2 1 1 2 2 2 3 3 5 7 9 12 
22 22 20 19 21 20 19 17 17 16 15 13 12 11 12 13 18 22 28 32 30 29 27 26 27 27 27 27 23 19 16 15 13 15 21 25 25 26 29 36 38 51 64 69 81 122 167 193 210 219 222 227 226 225 218 212 208 206 204 200 190 176 170 166 159 132 108 87 77 69 57 36 21 13 9 7 7 5 5 4 4 4 3 3 3 3 3 2 2 2 1 2 2 2 2 3 4 6 7 10 
18 19 19 18 19 18 18 17 17 16 13 12 11 9 8 9 14 18 25 28 22 22 23 20 19 18 18 18 15 11 8 6 5 6 10 15 15 18 24 29 35 52 66 72 86 112 148 180 202 215 221 228 228 223 219 220 220 219 219 213 199 185 174 170 164 144 122 105 97 96 88 61 39 22 14 10 8 7 8 8 5 6 6 5 4 4 3 3 2 2 1 2 2 2 2 3 4 5 7 9 
18 18 18 18 17 17 18 18 17 16 14 14 13 10 8 9 12 17 20 19 14 15 15 12 12 10 11 12 11 7 5 4 4 4 6 8 7 11 16 20 31 51 66 80 99 120 145 173 200 221 230 230 227 222 219 223 226 227 224 216 207 196 182 175 168 153 141 127 113 114 106 76 53 32 20 18 13 12 12 13 10 7 6 6 5 4 3 3 2 2 2 2 2 2 2 3 3 4 6 9 
19 19 18 16 14 15 17 18 18 17 16 15 14 12 10 9 12 15 14 11 8 8 6 5 5 4 4 6 7 5 4 3 3 4 4 4 3 5 8 13 30 51 68 85 110 133 150 172 195 219 230 228 222 218 215 224 229 230 228 221 217 210 197 187 175 163 156 143 136 127 111 88 72 51 38 33 27 25 26 25 16 11 7 6 5 4 3 3 2 2 2 2 2 2 2 2 3 4 6 8 
20 19 18 16 14 15 17 20 20 19 18 16 16 14 12 11 12 13 11 8 5 3 2 2 2 1 1 3 4 3 3 2 1 2 2 2 2 3 6 14 30 50 70 87 113 138 152 170 193 209 221 226 222 217 216 224 229 231 231 228 227 221 212 199 185 171 165 158 148 129 113 106 95 83 69 59 51 48 46 40 24 14 9 7 5 4 3 3 2 2 2 2 2 2 2 2 3 4 5 7 
19 18 19 17 15 15 18 21 22 21 21 20 19 18 14 13 13 11 9 7 5 2 1 1 1 1 1 1 2 2 2 1 1 1 1 0 1 2 5 14 29 46 71 87 105 133 151 171 191 203 221 231 230 222 219 224 227 226 225 223 222 221 217 202 189 172 166 155 136 119 108 113 115 111 101 88 80 72 59 47 30 17 12 7 4 3 3 2 2 2 1 1 1 2 3 3 3 3 4 6 
19 18 20 20 20 18 20 22 25 25 25 26 24 22 18 15 13 11 8 8 6 3 1 1 1 2 2 1 1 1 1 1 0 0 0 0 0 1 5 15 28 41 59 74 93 116 137 162 183 199 219 233 233 222 215 217 223 224 222 214 212 216 216 206 193 174 162 143 116 107 110 119 129 133 125 109 100 89 69 50 34 21 15 8 4 3 2 2 1 1 1 1 1 2 2 3 3 3 4 5 
20 20 23 24 24 24 25 25 28 31 31 32 30 27 22 17 14 12 10 9 7 3 2 1 2 3 3 2 2 1 0 0 0 0 0 0 0 1 6 16 24 33 42 55 79 101 120 144 165 178 198 216 225 214 200 204 215 220 217 213 212 217 218 211 189 170 151 130 115 107 110 124 136 137 128 120 114 106 78 52 34 22 15 8 5 3 2 1 1 1 1 1 1 1 2 2 2 3 3 4 
22 21 24 22 23 26 28 30 34 37 35 35 34 29 21 16 13 10 10 10 8 5 3 3 4 5 4 3 2 1 0 0 0 0 0 0 1 2 5 11 18 26 32 45 62 78 99 122 143 154 173 194 204 195 186 196 209 214 209 208 212 219 220 213 185 164 139 125 117 105 103 120 129 129 123 116 111 107 81 52 35 23 13 6 3 2 2 1 1 0 0 1 1 1 1 1 2 2 3 4 
24 23 23 21 23 27 32 36 41 44 43 37 32 25 19 15 12 13 13 13 11 7 5 6 6 7 7 6 3 1 0 0 0 0 0 0 2 4 5 10 17 25 30 39 47 58 80 98 116 137 154 163 166 173 181 187 201 207 205 204 212 217 217 209 187 160 137 135 119 102 100 115 121 125 132 122 111 100 82 56 31 16 7 4 2 2 1 1 1 0 0 0 0 0 0 1 1 2 2 3 
24 22 21 20 20 24 32 39 48 55 55 43 31 25 19 18 18 20 21 16 14 10 6 6 6 7 10 11 6 1 0 0 0 0 0 0 2 6 10 14 24 33 34 37 39 51 71 84 100 130 145 144 136 149 171 186 197 206 211 211 216 216 211 204 188 161 146 140 121 95 94 105 105 115 138 134 111 89 73 50 27 12 5 2 2 1 1 1 0 0 0 0 0 0 0 0 1 1 2 3 
21 19 18 17 17 23 31 43 57 65 60 46 33 25 22 22 22 24 22 17 15 13 8 6 5 5 8 10 7 2 0 0 0 0 0 0 1 6 11 17 33 46 45 41 44 55 70 82 90 109 116 112 105 128 156 177 182 193 205 206 209 208 199 191 178 148 132 125 107 88 83 91 95 103 121 116 97 74 56 42 25 9 3 1 1 0 0 0 0 0 0 0 0 0 0 0 0 1 1 2 
18 17 15 13 12 17 26 38 51 56 49 40 27 19 22 23 22 22 19 11 10 12 10 6 7 7 11 13 9 3 1 0 0 0 0 0 1 4 8 17 30 49 54 49 48 58 67 70 68 73 82 82 76 98 125 146 149 156 171 179 180 172 164 158 153 128 121 121 98 79 73 75 81 88 96 90 74 58 39 27 17 6 2 1 1 0 0 0 0 0 0 0 0 0 0 0 0 0 1 1 
15 13 11 10 11 12 17 27 37 40 32 25 18 15 20 21 18 17 13 7 6 9 11 8 7 9 13 15 9 4 2 1 0 0 0 0 1 2 6 14 26 44 56 54 50 55 55 53 46 52 61 55 52 68 92 113 116 121 134 139 130 124 121 124 126 110 112 115 98 78 70 68 71 73 78 69 55 44 26 16 12 6 2 1 1 0 0 0 0 0 0 0 0 0 0 0 0 0 0 0 
15 11 9 10 11 12 16 22 27 26 21 17 15 16 20 18 13 11 6 4 4 7 10 9 8 10 11 12 11 7 3 1 0 0 0 0 1 2 5 14 28 41 51 53 53 52 42 37 38 45 48 51 50 58 77 96 99 99 102 103 93 85 83 92 94 89 99 103 96 84 73 65 65 69 71 59 46 36 22 16 11 7 3 2 1 0 0 0 0 0 0 0 0 0 0 0 0 0 0 0 
13 8 8 9 10 12 16 24 28 25 18 18 17 16 17 13 10 8 5 3 3 6 8 7 6 8 9 9 10 8 4 1 0 0 0 0 1 2 7 15 27 36 45 49 51 50 35 29 36 43 47 53 47 50 63 75 81 83 84 82 70 60 59 66 68 81 94 95 97 92 84 79 80 84 76 63 47 34 23 15 9 7 4 1 0 0 0 0 0 0 0 0 0 0 0 0 0 0 0 0 
9 7 7 9 10 13 17 28 33 28 22 20 17 16 15 10 6 7 5 3 2 2 4 4 4 4 4 5 7 6 4 2 1 0 0 1 2 4 9 14 20 27 35 38 42 41 30 28 39 52 57 57 54 56 67 72 71 70 69 65 56 47 44 53 61 83 99 100 104 102 105 104 99 99 92 74 58 44 30 17 9 6 4 1 0 0 0 0 0 0 0 0 0 0 0 0 0 0 0 0 
6 6 7 9 9 14 19 29 34 31 26 21 16 16 15 11 6 6 4 2 2 1 1 1 1 2 3 4 4 4 4 3 2 1 1 1 3 5 8 12 16 19 26 32 38 38 30 31 40 59 67 64 68 78 85 81 70 65 61 58 54 54 55 53 57 73 88 98 108 109 110 114 109 104 92 74 66 55 37 22 13 10 5 2 0 0 0 0 0 0 0 0 0 0 0 0 0 0 0 0 
5 4 6 7 9 13 18 25 28 26 23 19 15 14 13 10 8 5 2 1 0 0 0 0 1 2 3 4 4 3 3 3 3 2 1 1 4 5 7 9 11 12 17 26 34 36 35 35 40 60 70 68 79 95 100 91 70 60 59 66 74 70 67 59 63 72 78 83 93 98 100 104 102 99 89 77 73 64 45 29 20 15 7 3 1 0 0 0 0 0 0 0 0 0 0 0 0 0 0 0 
3 3 4 4 6 9 13 16 18 16 16 16 14 11 8 7 7 4 1 0 0 0 0 0 0 1 3 5 4 4 4 4 4 3 1 2 3 4 6 10 11 12 16 24 36 43 53 55 57 72 77 76 85 99 109 96 72 57 58 73 83 71 58 56 65 71 61 61 74 85 88 88 90 93 90 83 81 71 53 36 25 18 10 4 1 0 0 0 0 0 0 0 0 0 0 0 0 0 0 0 
2 2 2 2 3 6 9 11 11 9 9 10 12 9 6 4 3 2 0 0 0 0 0 0 0 0 2 3 4 4 4 6 5 5 3 2 3 3 5 12 18 19 23 32 42 56 79 91 96 102 101 92 88 95 108 96 74 56 59 70 72 60 47 57 64 64 49 51 67 80 80 81 89 94 95 91 89 72 48 35 26 17 8 4 1 1 0 0 0 0 0 0 0 0 0 0 0 0 0 0 
2 1 1 1 2 4 7 8 8 6 5 5 7 6 4 2 2 1 1 0 0 0 0 0 0 0 1 1 2 3 4 7 8 9 6 5 4 4 4 9 19 29 32 39 53 73 98 116 128 131 131 117 96 85 88 82 76 66 65 62 58 60 54 56 63 65 53 52 60 72 75 89 102 107 105 97 87 65 39 25 20 11 6 3 1 1 0 0 0 0 0 0 0 0 0 0 0 0 0 0 
1 1 1 1 2 2 4 5 5 4 4 3 3 3 2 2 2 1 1 0 0 0 0 0 0 0 0 0 1 2 4 7 9 9 8 8 4 4 5 6 15 30 39 52 66 86 105 128 141 145 137 124 101 75 58 57 64 67 68 59 57 69 78 74 74 65 57 52 48 52 59 81 97 100 94 89 77 53 35 22 16 9 4 2 1 1 0 0 0 0 0 0 0 0 0 0 0 0 0 0 
0 1 1 1 1 1 2 3 3 3 3 1 1 1 2 2 3 2 1 0 0 0 0 0 0 0 0 0 0 1 2 3 5 5 6 7 4 4 6 7 15 31 51 72 88 103 115 131 143 142 129 116 106 73 42 37 46 55 58 57 66 84 102 99 83 58 46 40 35 36 45 60 75 77 70 65 60 47 35 25 15 8 4 2 1 1 0 0 0 0 0 0 0 0 0 0 0 0 0 0 
0 0 0 0 0 1 1 2 3 3 2 1 0 1 2 2 2 2 1 0 0 0 0 0 0 0 0 0 0 1 2 3 4 4 5 7 4 5 9 12 19 32 55 77 88 99 113 125 125 117 107 98 96 64 32 26 39 54 57 57 72 94 108 101 80 49 39 27 21 25 36 48 61 59 54 52 41 34 30 24 12 5 3 2 1 1 0 0 0 0 0 0 0 0 0 0 0 0 0 0 
0 0 0 0 0 0 1 1 2 2 2 1 0 0 1 1 1 1 0 0 0 0 0 0 0 0 0 0 1 1 3 4 4 9 10 10 9 7 11 18 27 35 52 65 74 81 92 110 113 108 105 104 95 63 31 26 41 62 70 75 88 112 110 102 85 49 37 20 14 16 23 33 47 50 47 42 30 22 21 17 9 3 2 1 1 1 0 0 0 0 0 0 0 0 0 0 0 0 0 0 
0 0 0 0 0 0 0 1 1 2 1 0 0 0 0 0 0 0 0 0 0 0 0 0 0 0 1 2 2 3 4 4 6 13 16 15 15 11 13 22 31 41 55 61 61 61 67 90 102 96 93 102 107 84 56 41 46 70 87 89 101 128 127 108 81 50 37 18 11 9 14 23 36 45 41 28 19 16 12 9 5 2 1 1 1 1 0 0 0 0 0 0 0 0 0 0 0 0 0 0 
0 0 0 0 0 0 0 0 0 1 1 0 0 0 0 0 0 0 0 0 0 0 0 0 0 0 0 1 2 3 4 4 4 8 15 20 21 17 21 34 41 49 62 69 72 67 65 79 95 96 99 95 98 89 73 58 59 81 106 113 130 146 132 96 63 45 35 21 14 11 12 18 25 31 31 22 14 12 8 5 3 1 1 1 1 1 0 0 0 0 0 0 0 0 0 0 0 0 0 0 
0 0 0 0 0 0 0 0 0 0 0 0 0 0 0 0 0 0 0 0 0 0 0 0 0 0 0 0 1 2 4 4 3 3 10 15 20 21 33 48 59 70 79 83 86 84 84 87 95 98 112 115 94 89 87 74 82 110 132 138 142 138 117 75 43 36 32 29 26 18 15 18 21 23 23 18 13 10 6 3 2 1 1 1 1 1 1 1 0 0 0 0 0 0 0 0 0 0 0 0 
0 0 0 0 0 0 0 0 0 0 0 0 0 0 0 0 0 0 0 0 0 0 0 0 0 0 0 0 0 2 3 3 2 3 7 9 14 25 43 56 76 98 106 103 100 99 98 105 110 113 122 120 99 92 86 88 106 129 145 145 126 110 91 57 32 28 31 37 37 26 23 22 20 21 16 11 10 8 4 2 2 1 1 1 1 1 1 2 1 1 1 1 1 1 1 0 0 0 0 0 
0 0 0 0 0 0 0 0 0 0 0 0 0 0 0 0 0 0 0 0 0 0 0 0 0 0 0 0 0 1 3 4 3 5 6 7 12 24 44 61 89 114 129 125 115 112 105 104 111 117 120 111 103 106 103 116 131 140 140 127 107 88 68 42 28 28 30 35 35 31 31 27 21 17 12 10 10 8 6 3 3 2 2 2 1 2 2 3 2 2 2 2 3 2 1 1 0 0 0 0 
0 0 0 0 0 0 0 0 0 0 0 0 0 0 0 0 0 0 0 0 0 0 0 0 0 0 0 0 0 1 3 4 4 6 7 7 12 24 46 71 94 117 139 142 132 126 117 106 105 111 117 108 103 118 127 137 135 128 123 106 83 69 51 33 25 28 27 29 32 37 38 32 23 18 14 15 14 12 11 8 5 4 4 4 3 4 4 5 5 4 4 5 5 5 4 2 1 0 0 0 
0 0 0 0 0 0 0 0 0 0 0 0 0 0 0 0 0 0 0 0 0 0 0 0 0 0 0 0 0 1 2 3 3 5 5 6 12 22 41 73 103 130 150 150 141 135 117 104 99 103 109 105 100 112 135 138 113 93 89 80 64 60 54 42 31 31 24 26 37 42 39 34 29 23 20 20 19 16 15 12 9 8 7 7 7 7 7 7 7 7 7 9 8 7 6 3 2 1 1 0 
0 0 0 0 0 0 0 0 0 0 0 0 0 0 0 0 0 0 0 0 0 0 0 0 0 0 0 0 0 0 1 1 2 3 4 7 13 22 35 68 112 143 161 163 151 134 110 100 97 100 98 91 88 98 113 107 85 62 61 64 64 68 70 61 47 41 32 35 43 43 37 35 35 32 28 24 20 19 19 17 13 13 12 13 14 11 10 10 11 11 9 10 10 10 9 5 3 2 1 1 
0 0 0 1 1 0 0 0 0 0 0 0 0 0 0 0 0 0 0 0 0 0 0 0 0 0 0 0 0 0 0 1 1 3 5 9 14 23 35 64 108 139 156 162 149 129 111 97 91 96 89 83 82 87 92 82 64 49 48 57 61 63 67 65 60 49 40 45 46 43 40 39 38 39 38 32 27 23 24 21 17 17 18 20 21 18 17 16 17 15 13 12 13 13 11 9 6 3 2 2 
1 1 1 1 1 1 0 0 0 0 0 0 0 0 0 0 0 0 0 0 0 0 0 0 0 0 0 0 0 0 0 1 2 4 10 14 20 25 35 63 94 117 133 140 130 114 99 87 83 94 91 83 85 83 85 76 58 46 48 54 56 57 54 56 65 57 47 44 43 38 38 35 34 39 41 36 33 28 28 26 23 22 23 27 31 31 30 25 24 23 19 17 18 18 15 12 7 4 3 2 
1 2 1 1 1 2 1 0 0 0 0 0 0 0 0 0 0 0 0 0 0 0 0 0 0 0 0 0 0 1 1 3 4 9 17 18 20 21 28 52 78 97 110 115 111 93 77 66 70 86 89 81 78 71 70 60 45 39 50 59 57 54 47 49 58 55 45 40 36 30 29 29 32 37 36 33 35 34 34 30 30 29 30 34 41 44 42 35 31 31 29 24 22 20 18 12 7 4 3 2 
2 2 2 2 2 2 2 1 1 1 1 1 0 0 0 0 0 0 0 0 0 0 0 0 1 1 1 2 2 2 3 6 10 19 25 24 22 21 25 43 68 87 96 98 93 77 62 50 54 67 69 58 56 59 58 48 35 32 51 65 63 56 48 45 44 38 31 28 22 21 23 25 30 34 34 33 37 39 37 33 33 34 38 43 49 54 51 46 40 36 34 29 27 22 20 16 9 5 3 1 
1 2 2 2 3 2 2 2 2 1 2 2 1 0 0 0 0 0 0 0 0 0 0 1 3 4 4 4 4 4 6 11 17 27 31 27 25 27 34 44 64 77 80 81 77 67 50 37 37 42 44 41 41 49 49 42 32 30 44 63 69 63 57 46 38 31 24 18 16 17 22 26 29 30 31 34 39 42 38 36 38 40 46 53 55 57 56 52 48 43 42 34 29 26 20 15 10 6 4 2 
2 2 3 3 3 3 3 3 3 4 4 3 2 1 0 0 0 0 0 0 0 0 0 2 4 7 7 7 7 8 12 19 30 37 34 27 29 36 43 53 65 69 73 70 59 51 38 26 24 24 27 35 37 43 43 36 28 28 33 46 59 64 57 42 31 29 25 18 18 19 23 29 30 31 34 39 43 47 44 42 43 46 53 61 62 61 61 59 55 52 48 39 31 26 19 14 12 8 5 3 
2 2 4 6 6 6 7 6 6 7 8 4 3 1 0 0 0 0 0 0 0 0 1 2 3 6 7 7 8 10 16 27 36 38 34 33 39 47 49 56 61 64 66 56 43 35 28 21 18 15 15 24 27 32 36 32 31 31 32 38 48 59 56 45 33 32 27 21 21 24 28 35 37 39 43 49 52 53 51 48 49 55 62 68 65 65 65 65 63 56 48 39 28 21 18 15 13 9 5 4 
2 2 4 8 10 10 10 10 13 13 10 6 4 2 1 0 0 0 0 0 0 0 1 1 2 5 7 7 8 10 17 24 29 29 30 35 45 52 52 56 57 55 53 45 33 27 24 22 22 14 11 17 19 22 27 31 36 35 29 31 43 52 49 46 38 34 30 26 24 27 31 35 40 43 48 54 60 60 60 56 55 60 70 73 72 70 69 66 66 58 45 37 28 23 19 18 19 13 6 4 
1 2 4 7 10 13 16 17 20 19 14 9 5 3 1 1 0 0 0 0 1 1 1 2 2 3 5 6 9 13 16 18 22 23 25 31 41 48 50 53 54 49 43 38 33 28 25 25 22 13 12 16 17 17 18 26 41 41 35 34 38 43 43 43 37 34 36 33 27 28 31 32 36 38 41 50 61 62 63 62 62 67 75 78 76 72 68 64 62 55 43 35 30 26 22 24 25 18 10 5 
2 3 4 6 10 17 21 21 22 19 15 11 5 3 2 2 2 1 1 1 1 1 1 2 3 4 5 5 9 14 14 16 17 19 20 25 36 45 51 52 51 47 41 37 31 27 25 25 26 19 18 22 22 21 20 25 36 41 38 36 38 38 39 42 41 40 39 33 29 31 33 33 33 36 39 49 57 60 63 64 68 71 75 78 79 76 70 67 63 55 46 40 33 28 25 25 22 16 9 5 
3 4 5 7 13 19 20 18 17 15 11 8 4 2 2 2 2 1 2 3 2 2 2 2 3 5 5 6 8 11 12 13 14 14 16 21 29 39 46 46 44 43 39 36 33 31 30 32 34 32 30 34 32 29 24 26 35 40 40 39 40 39 41 49 52 49 43 35 32 35 37 32 31 36 43 49 54 58 63 67 67 72 74 79 83 82 79 74 63 53 48 42 35 29 28 25 15 10 6 4 
5 6 7 8 13 17 16 12 9 7 5 3 1 0 1 1 1 1 2 3 3 2 1 1 3 4 4 5 7 9 10 11 11 10 12 18 26 36 44 43 40 37 32 33 37 37 35 37 41 43 43 48 48 39 30 33 43 46 43 39 37 37 41 49 56 54 46 40 38 41 38 32 33 38 44 50 54 58 63 68 68 71 76 83 86 87 84 78 66 55 49 43 37 33 30 22 8 4 3 2 
7 7 8 9 11 14 12 7 5 3 2 1 0 0 0 0 0 0 1 2 2 1 0 1 1 2 2 3 4 6 8 10 9 8 9 15 21 32 39 38 34 33 33 35 39 42 44 46 47 52 57 59 62 53 47 47 58 62 57 46 34 33 37 47 51 50 45 40 39 42 41 36 35 39 44 51 56 60 65 68 69 73 79 86 89 87 84 76 65 55 46 38 34 30 24 16 6 2 1 1 
10 9 10 11 10 10 9 4 2 2 1 0 0 0 0 0 0 0 1 1 1 1 0 0 1 1 1 2 2 3 5 7 7 6 8 12 18 26 33 33 30 31 34 36 40 47 55 59 64 71 76 76 72 66 65 64 74 77 65 54 42 38 40 42 41 40 39 39 39 42 42 39 38 39 42 48 56 61 66 68 71 75 80 84 85 83 78 71 61 51 43 32 26 22 17 12 6 2 1 1 
13 13 13 11 8 7 5 2 2 1 0 0 0 0 0 0 0 0 0 0 0 0 1 1 1 1 1 1 1 2 3 5 6 5 8 12 18 24 28 30 29 31 33 34 41 54 67 72 82 93 97 95 82 72 75 81 84 76 64 58 55 51 42 34 31 28 29 34 38 39 38 37 37 39 42 47 54 60 64 67 71 75 78 79 80 81 75 67 58 47 38 26 19 16 12 9 6 4 3 2 
15 16 14 9 7 5 3 2 2 1 0 0 0 0 0 0 0 0 0 0 0 1 1 1 1 1 1 1 2 2 4 6 6 6 8 13 19 24 29 32 31 30 31 34 42 57 69 75 87 98 103 100 83 77 81 91 82 69 63 62 60 57 44 33 26 24 26 29 32 35 34 35 36 39 42 46 51 57 61 65 70 72 74 76 78 78 74 68 60 48 35 22 14 11 9 7 5 4 3 2 
16 16 13 9 7 5 4 3 2 1 1 0 0 0 0 0 0 0 0 0 0 0 1 1 1 1 2 3 3 4 5 6 6 6 8 13 19 24 29 32 32 30 30 34 42 56 65 74 86 93 99 96 81 77 79 83 73 63 62 62 58 53 42 30 24 24 26 27 28 30 31 32 36 40 43 46 50 55 59 64 68 69 72 76 78 77 72 64 56 45 32 21 14 10 7 5 3 3 3 2 
16 16 14 10 8 6 5 3 2 2 1 1 0 0 0 0 0 0 0 0 0 0 1 1 1 2 3 4 5 6 6 6 6 8 9 13 19 26 30 31 32 31 32 37 45 54 64 72 78 80 83 84 74 67 68 67 63 59 59 62 58 51 40 30 26 27 26 25 27 28 29 32 36 40 42 45 48 52 56 61 65 67 70 73 77 75 68 60 49 38 29 22 16 8 5 3 3 4 4 4 
15 13 11 8 6 5 5 4 4 3 1 1 0 0 0 0 0 0 0 0 0 1 1 1 2 3 4 5 6 7 7 7 7 9 11 16 21 27 29 27 29 31 32 40 48 54 63 65 62 63 63 66 61 53 54 57 60 59 59 61 55 46 37 32 29 28 23 22 25 26 28 31 35 38 40 41 43 46 51 56 59 61 65 66 70 68 61 55 42 31 25 21 15 8 5 4 5 6 8 8 
12 10 9 6 5 4 4 5 5 5 2 1 1 0 0 0 0 0 0 1 1 2 2 2 2 3 6 6 6 6 8 8 9 12 14 19 23 27 27 26 28 29 31 38 44 50 58 58 53 54 52 53 50 42 42 50 55 55 53 53 50 41 36 31 27 24 20 19 22 25 27 30 33 35 36 36 37 40 43 47 50 54 60 63 64 59 51 43 32 24 21 19 14 10 6 6 9 8 9 12 
11 9 7 6 5 5 5 7 8 6 4 2 2 1 0 0 0 0 1 1 2 3 3 4 4 5 7 6 5 6 7 10 12 13 17 22 25 27 26 28 28 30 34 36 37 42 50 54 53 51 51 52 48 41 40 45 51 51 46 44 43 38 34 28 24 21 20 19 20 23 25 28 31 32 32 32 34 35 38 40 43 48 54 54 55 52 44 35 27 21 16 16 14 10 8 9 11 11 11 12 
9 7 5 5 5 5 7 10 11 10 7 5 4 3 1 1 1 2 3 4 6 6 5 6 7 7 8 6 6 7 8 13 17 18 21 26 28 29 31 34 32 32 33 31 32 37 43 49 51 49 50 52 52 48 43 43 46 45 42 40 39 36 31 26 23 20 19 19 20 21 24 26 28 28 27 27 29 31 33 32 35 41 45 44 44 41 35 32 28 24 18 16 13 8 8 13 14 14 10 10 
8 6 6 6 6 7 9 12 14 14 10 9 6 4 3 4 6 6 6 9 12 13 11 8 7 6 7 6 6 7 10 16 20 22 24 26 28 33 37 37 36 34 31 28 26 30 35 42 51 50 49 49 50 46 43 43 43 43 40 39 39 37 31 24 22 19 19 19 21 22 23 24 26 26 25 24 24 26 27 27 29 33 34 33 34 32 27 27 28 27 21 19 16 11 11 15 15 17 15 14 
10 10 9 8 6 8 12 15 15 16 13 11 8 6 6 9 12 11 13 19 22 24 22 14 9 7 7 9 9 9 12 18 23 26 26 28 33 36 37 38 38 35 32 28 26 26 29 33 41 43 40 38 40 39 40 39 39 39 40 38 36 33 29 24 21 19 19 22 24 23 23 24 25 25 23 21 21 21 21 23 25 27 27 26 27 26 23 22 26 29 26 22 20 16 17 21 23 28 29 27 
15 14 12 11 9 11 15 19 19 20 16 13 12 9 8 11 14 17 21 27 30 31 29 21 13 8 9 13 15 15 17 21 24 28 30 32 37 38 36 35 34 32 30 30 29 26 26 28 32 32 29 32 35 36 37 39 43 43 43 38 32 28 26 22 21 22 23 25 26 25 24 24 24 24 22 19 17 19 20 20 21 23 23 22 22 22 21 21 25 32 35 30 25 20 22 30 35 41 43 45 
20 18 18 18 15 16 19 22 24 26 24 19 16 13 13 18 23 29 33 42 47 44 40 32 18 10 11 15 20 23 23 23 25 27 34 37 40 39 36 35 32 31 31 31 28 25 26 30 31 29 30 30 31 34 37 43 48 48 44 38 31 26 24 22 22 24 26 28 29 29 26 25 24 23 21 19 16 17 18 19 20 21 21 20 20 21 23 24 28 36 39 37 31 27 27 37 48 58 57 60 
24 21 22 23 22 24 26 27 30 33 33 28 22 18 21 25 32 43 54 66 67 60 53 45 26 16 15 19 25 31 32 29 29 30 35 38 40 39 36 33 30 29 29 28 26 25 28 31 31 34 34 32 35 38 41 48 54 56 49 42 35 28 26 25 25 27 28 29 31 30 28 25 24 23 21 19 16 16 17 18 19 20 20 20 19 19 22 26 33 39 40 39 37 33 30 40 57 69 68 67 
27 25 26 31 33 35 38 38 41 46 48 41 33 31 32 34 39 54 73 83 79 71 64 58 39 28 24 26 32 38 38 35 32 29 30 32 34 34 32 29 26 26 27 27 26 26 27 29 34 40 40 39 43 47 49 51 56 58 54 46 39 31 28 29 29 31 31 31 32 32 30 27 25 22 20 18 16 16 16 16 18 18 18 18 16 16 18 24 31 35 35 38 37 31 30 37 51 60 64 67 
30 30 32 39 46 49 49 49 52 58 60 52 43 41 41 45 54 66 79 89 88 84 75 67 52 38 32 33 38 43 40 33 29 26 25 24 24 25 24 23 21 23 25 25 26 26 25 28 36 43 45 46 48 53 58 58 60 57 54 50 45 37 33 34 33 34 33 32 34 35 33 30 27 24 21 19 17 16 16 16 16 16 16 15 14 15 18 23 29 33 33 35 32 24 20 28 40 50 53 59 
34 35 39 47 53 57 58 58 61 66 67 61 51 48 51 56 64 72 82 93 102 96 83 70 57 45 40 40 40 40 36 28 24 22 19 17 17 19 19 16 16 18 21 23 24 25 25 29 37 43 46 47 53 60 67 68 67 62 57 56 53 46 41 39 35 34 33 33 36 38 37 33 29 26 23 21 19 16 16 16 15 15 15 14 14 15 18 23 29 31 31 30 25 20 16 21 34 45 48 57 
38 40 47 52 56 61 63 65 68 70 72 70 62 60 67 72 72 73 86 105 114 102 85 70 58 44 43 43 42 40 32 24 20 16 13 12 14 16 15 13 12 15 19 21 21 22 25 30 37 43 48 53 62 71 79 80 74 68 69 72 69 60 50 44 40 38 35 34 40 43 41 37 32 29 27 23 21 18 17 16 15 14 14 13 14 15 17 22 27 26 26 23 20 20 18 21 30 42 50 61 
41 45 50 55 60 65 68 70 71 75 77 76 73 75 85 88 84 82 93 113 121 107 83 66 58 47 44 44 42 39 26 17 17 15 13 12 12 13 11 11 12 15 20 21 20 20 24 30 37 45 54 61 70 80 88 91 85 82 87 91 82 69 58 49 42 40 37 36 42 45 42 37 32 30 29 27 24 21 19 17 15 15 13 11 12 13 14 19 21 21 20 18 19 23 24 24 31 44 53 72 
43 46 50 55 62 66 70 73 76 81 86 88 88 94 104 103 101 100 107 124 129 117 89 72 62 48 41 41 41 32 21 15 17 20 18 15 15 14 12 13 13 15 20 22 20 19 21 28 35 45 56 67 78 87 96 96 97 100 104 106 95 76 63 53 45 42 41 39 42 42 41 35 31 29 30 30 27 23 20 17 15 14 12 10 9 10 13 16 18 18 18 18 23 29 36 33 39 45 54 76 
44 47 50 54 60 64 70 75 79 86 93 97 101 107 113 115 118 118 118 127 131 120 97 78 67 49 38 37 33 25 17 16 20 22 22 23 22 20 18 17 16 15 18 19 19 20 20 27 34 41 53 68 84 93 101 99 105 112 111 110 101 82 68 57 49 45 46 45 42 39 36 32 29 30 31 31 26 22 19 16 13 12 10 8 7 8 10 13 14 17 20 23 30 40 47 44 45 49 57 65 
45 48 51 53 57 63 70 76 82 90 99 104 109 117 122 126 127 125 120 124 123 112 98 82 69 52 36 29 26 21 16 18 22 26 31 36 33 27 22 19 17 18 17 17 19 22 22 25 33 42 59 74 90 103 112 110 113 114 113 112 99 84 74 64 53 46 45 44 38 35 31 29 27 29 30 28 25 21 17 14 12 11 8 6 5 5 7 9 10 14 18 23 31 43 51 47 46 51 60 62 
44 48 52 54 57 64 71 78 85 93 102 108 114 123 133 138 136 131 128 122 115 107 91 76 57 40 28 23 21 20 18 20 27 32 38 43 44 40 34 26 21 21 19 18 19 22 26 29 38 53 72 88 101 115 121 121 117 115 114 110 98 81 72 64 54 48 45 42 35 30 27 28 28 27 27 26 25 24 20 15 12 11 9 6 4 4 4 5 7 12 16 19 27 43 58 56 52 50 59 66 
43 47 51 55 59 66 73 80 87 95 104 110 117 127 141 147 144 142 137 126 112 103 83 65 47 30 21 19 19 20 18 25 31 32 39 48 56 59 56 43 30 26 24 19 19 23 28 37 53 72 86 104 117 130 133 132 125 116 109 101 90 77 65 58 53 47 44 39 33 26 23 25 28 26 24 28 30 31 26 19 14 12 9 6 4 3 2 3 7 11 12 15 23 43 65 67 59 54 64 73 
42 46 51 55 60 67 75 82 89 97 105 114 121 130 144 152 148 146 136 122 106 97 78 56 38 26 19 18 21 24 25 30 34 32 38 51 65 70 75 65 49 35 27 22 24 32 40 51 67 88 104 119 131 144 147 143 132 118 105 92 81 70 60 50 45 40 38 33 28 23 22 24 26 28 28 31 34 34 26 19 14 10 8 5 2 1 1 2 4 9 12 15 24 40 54 61 61 60 69 84 
41 45 50 54 59 66 74 83 91 100 108 118 128 139 150 155 150 145 130 112 98 86 73 56 40 29 21 20 20 20 26 31 38 44 48 59 69 77 85 78 66 51 40 35 35 43 50 60 76 99 117 138 149 157 155 143 130 115 97 77 66 61 56 44 35 31 29 25 23 21 20 21 23 27 29 31 36 35 28 19 13 6 3 2 1 1 1 2 3 7 14 19 28 42 48 53 65 67 78 101 
41 45 49 52 57 65 74 83 91 102 112 123 137 149 155 158 153 146 135 116 98 89 82 72 57 41 28 21 18 20 28 35 48 59 65 65 73 81 88 84 77 69 62 54 50 55 68 73 86 104 126 143 152 156 159 145 126 110 90 69 57 53 48 37 28 26 24 20 19 17 15 17 21 25 30 34 40 39 28 18 11 5 2 1 1 1 1 2 3 8 19 27 34 42 45 50 66 73 86 110 
41 45 48 52 58 67 74 86 95 105 117 133 152 164 162 162 163 156 147 135 115 106 98 93 84 68 47 30 26 36 46 49 58 73 83 82 86 93 93 89 96 96 89 74 62 68 87 97 101 107 120 134 150 161 166 153 138 116 92 70 59 50 41 31 24 22 20 18 17 15 13 16 21 26 31 35 39 35 22 11 7 4 1 1 1 1 1 1 2 8 21 33 39 42 41 48 64 76 88 102 
41 44 48 53 61 70 78 91 102 112 125 147 167 176 174 174 177 172 169 163 142 137 126 119 110 93 73 53 50 62 71 72 74 88 97 90 87 96 99 96 109 121 110 94 83 95 115 123 121 119 118 124 148 168 175 164 147 124 99 75 62 52 40 32 25 21 20 18 16 14 15 16 20 24 26 26 27 24 13 6 4 3 1 1 1 1 0 1 2 6 15 26 36 42 38 44 58 76 78 81 
43 46 49 55 63 73 83 97 108 118 133 155 175 185 190 192 190 185 185 185 176 170 161 148 137 123 107 91 85 85 86 90 90 99 109 103 98 103 113 110 125 136 126 117 117 131 148 150 139 133 124 124 145 169 174 166 149 123 97 73 59 48 37 33 27 26 26 23 20 19 18 17 17 19 22 21 19 15 8 3 2 2 1 0 0 0 0 1 2 6 13 23 31 40 35 42 60 73 63 54 
45 50 52 59 64 73 85 100 113 122 137 156 175 188 197 199 199 198 205 204 200 199 200 192 183 167 146 132 122 103 95 97 96 104 124 133 135 133 129 123 134 133 122 127 143 153 163 167 159 155 143 138 146 153 158 159 145 121 92 67 49 37 28 28 28 30 31 29 29 30 24 18 16 18 21 20 16 11 5 2 1 1 1 1 0 0 0 0 2 6 12 20 24 30 29 34 51 62 48 38 
49 54 56 61 66 72 84 101 117 127 142 162 179 188 191 194 200 206 216 217 209 205 213 216 210 196 174 167 153 131 121 114 115 126 144 153 162 154 146 137 131 126 123 138 157 165 170 181 185 181 165 150 149 145 145 144 136 113 78 53 39 29 21 22 25 28 30 32 35 36 28 20 19 18 17 17 12 7 3 1 1 0 0 0 0 0 0 1 3 6 12 20 23 22 21 27 42 54 44 38 
49 53 57 60 66 71 85 103 120 133 147 170 186 188 187 193 205 213 219 223 220 209 210 216 216 202 186 185 177 162 151 139 141 151 152 154 170 165 159 153 136 130 126 141 164 177 180 189 199 191 178 160 150 147 143 137 126 100 62 42 31 24 18 18 20 21 21 25 29 30 23 19 18 15 12 12 8 4 1 0 0 0 0 0 0 1 1 2 4 9 18 27 27 21 16 20 40 51 46 41 
48 53 56 59 63 74 90 108 123 139 152 175 193 196 193 197 209 215 215 221 226 217 210 209 212 201 195 197 193 185 174 164 164 161 154 153 162 162 157 155 131 119 122 137 165 182 190 200 203 198 190 170 156 152 142 130 109 86 58 38 28 21 15 14 14 15 13 15 17 17 15 14 13 10 7 6 4 1 1 0 0 0 0 0 0 1 1 2 6 13 25 37 33 21 14 17 33 42 41 34 
47 53 57 60 62 75 95 113 123 137 153 176 196 202 201 200 205 212 213 216 224 218 210 204 204 200 199 200 198 194 182 177 173 161 154 152 150 144 133 132 114 109 115 123 154 185 203 209 215 216 205 188 173 156 136 124 100 74 53 34 24 18 12 9 7 8 7 7 7 8 9 9 8 5 2 1 1 0 0 0 0 0 0 0 0 1 1 3 8 18 26 30 26 16 15 13 18 25 30 29 
44 48 56 60 63 74 92 113 125 136 155 179 199 207 209 206 206 212 212 214 219 214 208 206 202 202 201 204 202 196 188 184 172 159 151 139 136 121 111 104 96 93 97 112 144 175 195 210 221 227 214 193 175 155 133 119 95 70 50 31 20 13 8 6 3 4 3 3 3 4 4 4 3 1 0 0 0 0 0 0 0 0 0 0 0 0 1 2 10 19 19 17 13 8 10 8 7 11 20 25 
39 42 52 60 66 77 91 110 123 135 155 180 199 209 209 207 208 206 208 209 212 210 213 212 209 206 206 212 212 205 200 186 162 147 145 138 126 104 95 81 69 62 67 84 120 150 175 202 217 221 218 197 183 163 135 113 87 66 46 30 18 8 6 4 2 2 2 1 1 1 1 1 0 0 0 0 0 0 0 0 0 0 0 0 0 0 0 2 7 13 13 11 7 4 4 4 3 5 10 14 
